9.3297200998 15.4740749123 3.7373313067 -0.5844241892 0.4141821286 0.6977832983
9.5963184036 11.0703782920 3.5775408330 0.5703317745 -0.7926929484 -0.2153126947
9.5204490622 11.2220072834 3.7326533326 0.2056190595 -0.9656393601 -0.1589384429
9.6235774193 15.7625075158 3.6611934881 -0.3580581756 0.6775545428 0.6424283497
9.7021444863 11.2746626343 3.7193429291 0.4478016896 -0.8061977784 -0.3866765947
9.7919936671 15.7859241791 3.5712602443 -0.0716058708 0.7971057848 0.5995789915
9.8317655632 15.7934794562 3.5815628948 0.0049519363 0.8041791254 0.5943663959
9.8568088225 15.7864811660 3.5720197718 0.0884409646 0.8270780669 0.5550856393
9.9229948671 15.9685009807 3.7368190734 0.0233362681 -0.8241740124 -0.5658556494
10.1783336854 11.7676352334 3.6148195891 0.7218555608 -0.4854530998 -0.4932137845
10.1861153694 11.7867597173 3.6251312254 0.7218555608 -0.4854530998 -0.4932137845
10.3615351678 11.9177932617 3.5810850640 0.7413057711 -0.5335647140 -0.4071540859
10.2888801930 11.9802045600 3.6525405638 0.7870974720 -0.3662612660 -0.4963166878
10.4694162952 12.8284761173 3.6732793412 0.7298239524 0.0756405539 0.6794376389
10.4548853172 12.8341503895 3.6787166864 0.7298239524 0.0756405539 0.6794376389
10.2976602936 12.8999705275 3.7323261433 0.9750208819 0.0766532814 -0.2084671540
10.7267803642 12.7392368037 3.5743522594 0.9386738623 -0.2854494262 0.1934166627
10.5421264502 12.9929043394 3.6522271620 0.6510610317 -0.3963194894 0.6473410194
10.0648495598 15.8018722569 3.5853384154 -0.4185102954 -0.8571349262 -0.3002812862
10.4399978276 12.3983246640 3.6714557304 0.9338322209 -0.2855382698 0.2154652634
10.4430856360 12.4132810865 3.6641575400 0.8963693540 -0.1158569274 0.4279008690
10.6039425921 12.4778336813 3.5922736220 0.9686823302 -0.2387278084 0.0682903856
10.4769361507 12.6214232425 3.6727562951 0.8895453568 -0.1967775147 0.4122956074
10.5206024112 12.6490640189 3.6529079949 0.9093539087 -0.2162116010 0.3554265217
10.7387254620 12.9216330698 3.5894089109 0.9744740092 -0.2232599967 -0.0235664856
10.8042538387 13.1333385499 3.5835902219 0.7112957742 -0.0390054600 0.7018097290
10.8016850112 13.1546581995 3.5867567090 -0.4910968397 0.0472104470 -0.8698247339
10.8241396488 13.3615625909 3.5812023924 -0.4296545743 0.0061057656 -0.9029726831
10.4524831462 13.3811001514 3.7079034729 0.9866152484 -0.1087089446 0.1215430663
10.6258829301 13.5141743246 3.6487899102 0.7041599891 0.0592680826 0.7075634276
10.6322237967 13.5119140438 3.6466282511 0.7041599891 0.0592680826 0.7075634276
10.0541715203 15.7881609533 3.5797553419 -0.4185102954 -0.8571349262 -0.3002812862
10.8457469459 13.7053162447 3.5743843068 0.9215661246 -0.0700274895 0.3818534126
10.2748444540 15.8275524338 3.6320339367 0.2737716883 0.9616473621 -0.0168348940
10.6658109565 14.6320905335 3.6996434841 0.9990817569 0.0234695256 -0.0358444486
10.7841833032 14.7527239881 3.5778100246 0.9363882345 0.1637485638 -0.3104246804
10.3770103946 15.6583142238 3.5783270096 0.5451276217 0.7870475026 -0.2887769117
10.4473231218 15.8295366620 3.6721355558 0.5353509626 0.7202096582 -0.4412452777
10.4154383459 15.8579756053 3.6805956652 0.4526277705 0.8235579473 -0.3418777688
10.7728574738 14.8044661152 3.5797398085 0.9153128377 0.2026237185 -0.3480603938
10.7463771164 15.0452923245 3.5951955291 0.9607682695 0.1149435700 -0.2524129713
10.5852042198 15.6954379566 3.6692112376 0.6045183745 0.4314324770 -0.6696443479
10.5617563637 15.5286065752 3.5919419110 0.8622255121 0.3326469595 -0.3819858199
10.7414340878 15.6862024146 3.7525620466 0.8643313756 0.2574569985 -0.4320268129
8.6867249046 12.6369125685 3.9510679215 0.9334018663 0.0337267446 -0.3572442619
8.6423521147 12.7923666140 3.8300512219 0.9839670880 -0.1697212609 -0.0548038631
8.7010000000 13.0168171037 3.9281374098 0.9858563637 -0.1515251401 -0.0716056004
8.7780000000 13.4706344372 3.8452616930 0.9809454171 -0.1777801046 -0.0783602142
8.8258883920 13.6650684691 3.9011180767 0.9535428281 -0.2635123944 -0.1460044275
8.9527595198 13.9211121495 3.9349736868 0.9072557612 -0.2225551132 -0.3568700118
8.8699297370 14.1613098224 3.7966134780 0.9034479351 -0.1664410789 -0.3950685964
8.9995503562 14.1054298768 3.9748503798 0.8336643335 -0.2353060881 -0.4996346905
8.7161694139 11.7638327529 3.9840129179 0.9833043195 0.1804487112 0.0234707881
8.7694109308 12.3872525924 3.9278082447 0.9999473831 0.0038795556 -0.0094963144
8.7769668945 12.4617618901 3.9209391868 0.9850502906 0.0245456979 -0.1705093360
9.0763281086 14.2616631714 3.9768110572 0.7854318245 -0.2371921224 -0.5716963759
8.9753319526 14.2951553577 3.8390890262 0.9057019683 -0.1884755731 -0.3797116051
9.0474138877 14.4626228258 3.9051447856 0.8524785662 -0.2494353446 -0.4594151751
9.1012553112 14.6091192736 3.8954013485 0.7632549150 -0.2809805605 -0.5818005323
9.0823056257 14.6354489493 3.8927764552 0.7823838766 -0.3151794393 -0.5371567655
9.0181407483 11.3269517090 3.9666921038 0.8285896414 0.5422485716 0.1393043171
9.2729765371 14.8951708804 3.9220848388 0.7138055990 -0.2761644011 -0.6435952069
9.2620873410 14.9217705008 3.9149286390 0.7342171573 -0.3033541506 -0.6073725588
9.4459537027 15.0001086837 3.9853840995 -0.5041784468 0.3722926895 0.7792318314
9.4564242274 14.9866949783 3.9897691300 -0.5041784468 0.3722926895 0.7792318314
9.2010106644 11.1939360332 3.9464169406 0.6656784185 0.6134426841 0.4249238950
9.2505520330 11.1885220260 3.9388878351 -0.4238757046 -0.7289147548 -0.5375989836
9.4447817231 15.3384004474 3.8676328779 -0.4857709247 0.4135953196 0.7700425445
9.4340620657 11.1160269832 3.9113108945 0.0072186458 -0.7640494913 -0.6451172498
9.6300556520 15.2956232985 3.9214447253 -0.2870612582 0.4381055171 0.8518564374
9.7355031479 15.5526317209 3.8592164588 -0.2596724229 0.4549718104 0.8518044872
9.7524212572 11.1904508990 3.9058689435 0.4114830384 -0.6810473884 -0.6056865228
9.7436724327 15.7291528712 3.8202567057 -0.2099419861 0.6317188214 0.7462276417
9.9431448001 11.2967478048 3.9236710884 -0.4242879655 0.4557805067 0.7824601281
9.8481307032 15.1786856600 3.9873584564 -0.2925305292 0.5968652919 0.7471129183
9.9722582227 11.2964431580 3.9397173080 -0.4102370049 0.4219777030 0.8084803139
9.8307946630 15.3594409231 3.9380615664 -0.2412046161 0.4935047840 0.8356275255
9.8779255201 15.1736602079 3.9887290342 -0.2283944452 0.6431040407 0.7309262413
10.0582896691 11.5215609660 3.8878843552 -0.6322345654 0.4064934920 0.6595775128
9.9232600759 15.7600702708 3.8287990171 -0.1049161840 0.6183264009 0.7788870626
9.9082205532 15.6429661445 3.8607365061 -0.1026863516 0.4900546439 0.8656222959
10.2209386751 11.6140162006 3.9584427726 -0.5834144146 0.3079502884 0.7515279374
10.2455072983 11.6350593856 3.9533854148 -0.6032337348 0.2758895575 0.7483274773
9.9642873772 15.4733494498 3.9145414587 -0.1268778085 0.4506074390 0.8836599785
10.0037993225 15.4730369786 3.9146189309 -0.0803629762 0.4356420036 0.8965254245
10.0221372703 15.3390364948 3.9478421914 -0.0782340168 0.5551714586 0.8280483622
10.3319792474 11.8236439291 3.9622165351 0.6888707271 -0.3047436935 -0.6577145297
10.0830326220 15.1789949650 3.9875219095 -0.0854588931 0.7348332040 0.6728424332
10.0862608745 15.6285575750 3.8760601054 0.0664094183 0.5123040892 0.8562326257
10.0916015821 15.6400968490 3.8731991283 0.0664094183 0.5123040892 0.8562326257
10.2894480506 12.0109760602 3.8658818321 0.7983526335 -0.3942683198 -0.4551764104
10.4251041993 11.9931573257 3.9672882039 0.7193995407 -0.1897879762 -0.6681652677
10.4098592887 13.0179768855 3.8917542221 -0.5712238616 0.0764571385 0.8172255539
10.6068698399 12.9738149863 3.9776356537 0.8073610472 -0.1518094343 -0.5701947344
10.5216795366 12.3414240647 3.9713724113 0.7290881553 -0.2469103794 -0.6383304210
10.3863979611 12.3525621443 3.8791349735 0.7912437702 -0.1517477497 -0.5923731228
10.2437945068 12.3964673082 3.7819053455 0.9638066097 -0.1833221795 -0.1935711693
10.3876505410 12.5420213727 3.8616236819 0.9589871939 0.0444692642 -0.2799393621
10.5766582714 12.5122331518 3.9841348477 0.8572240750 -0.1208383404 -0.5005646618
10.3987916410 12.5373241366 3.8825546884 0.8740399215 -0.1290228107 -0.4684093615
10.5707619587 12.7647702799 3.9598701593 0.7338638319 -0.1140158643 -0.6696598083
10.5844132012 12.7867204085 3.9673162916 0.7710941933 -0.0666823915 -0.6332197120
10.6013778312 13.0030807535 3.9686443546 0.7691706615 -0.1372471354 -0.6241311700
10.5271837523 13.3596490435 3.9100835238 -0.6078571022 0.0807779208 0.7899270035
10.5755693363 13.3539930775 3.9320769710 -0.6543478800 0.0874207194 0.7511234717
10.6984397838 13.5234500132 3.9879271745 0.7529113410 -0.0590157257 -0.6554705613
10.5234419650 13.5302136847 3.9083827114 -0.6105693853 0.0753779082 0.7883674249
10.2302734899 15.4735046808 3.9207943907 0.1496483086 0.4804653007 0.8641518840
10.2177183155 15.7192432292 3.8649447206 0.0364703464 0.4770299097 0.8781300468
10.2053269799 15.8445376469 3.8364687166 -0.0115993489 0.5492278930 0.8355921114
10.5467974482 13.7751391323 3.9047986081 -0.6331046502 0.0120594570 0.7739722678
10.5732470571 13.7129776206 3.9192256675 -0.6581983441 0.0947650921 0.7468564234
10.2173186530 15.4674812881 3.9221633436 0.1014687147 0.4447486639 0.8898891650
10.7217082209 14.1662908946 3.9502556052 0.8610108166 -0.0024375978 -0.5085808017
10.7376429470 14.1838033515 3.9611201911 0.8210650835 -0.0200747760 -0.5704814915
10.6349542090 14.3149120625 3.8911051425 0.9609545695 -0.1108996040 -0.2535105387
10.6831159889 14.3488805742 3.9239427197 0.9590654485 -0.1158625133 -0.2583976460
10.4416045830 16.0013252707 3.8008351657 0.1798612434 0.7728512644 0.6085645868
10.2243964963 15.4527861569 3.9255031462 0.1014687147 0.4447486639 0.8898891650
10.6533942919 14.6211365128 3.9223558526 0.9754494153 -0.0127013838 -0.2198570286
10.3710428431 15.6019027375 3.8916130142 0.2770483151 0.3909675353 0.8777178462
10.3668568916 15.6211171810 3.8872460952 0.2770483151 0.3909675353 0.8777178462
10.4588144600 15.8406941646 3.8373422353 0.2186758265 0.2795296686 0.9349032288
10.6814709330 14.6551112031 3.9312843626 0.9527241133 0.0733918761 -0.2948396114
10.5044562988 15.4673028361 3.9068637698 -0.3650200834 -0.6836000643 -0.6320215904
10.5529874901 15.6347298475 3.8666523074 0.2145695853 0.4083034357 0.8872700814
10.5971785026 15.8927152436 3.8080192628 0.5280451877 0.4778113819 -0.7020431348
10.5095151714 15.4836905256 3.8879663383 0.4596632722 0.3842885771 0.8006447188
10.5999666409 15.6388838855 3.8560137653 -0.2791688159 -0.3158142356 -0.9068220006
10.6448601177 15.8225198144 3.8108773060 0.4099395453 0.2079455023 -0.8880924711
10.3557601812 15.3349622761 3.9431449580 0.1259628549 0.3925086750 0.9110819388
10.4037702292 15.3050435419 3.9443855965 -0.3786570114 -0.2921495266 -0.8782183794
10.6128957688 15.3005954199 3.9138972807 0.9896510288 0.0381630710 0.1383272250
10.6167968170 15.3078649088 3.9082390398 0.9945958589 0.0342599912 0.0980067879
10.6658944713 15.3353028462 3.9047042889 0.9869193883 0.1234056881 -0.1037359973
8.7000556453 12.3763991957 3.7812877563 0.9925848293 0.1196100497 0.0216516207
8.7000663264 12.3539679855 3.7812731913 0.9925848293 0.1196100497 0.0216516207
8.5990021798 12.4604959626 3.9122713625 0.9931205529 0.1166553431 -0.0101537357
8.6227566402 12.5129171286 3.8448070641 0.9928924476 0.1101954409 0.0449616763
8.7188483201 11.9643655101 3.8997853266 0.9710757258 0.2298417905 -0.0646891503
8.6454064239 11.9768542071 3.9526853357 0.9726466941 0.2309622572 0.0247960537
8.6931216268 12.1410571218 3.8353829680 0.9761934914 0.1963253050 -0.0922097714
8.6923861520 12.1554345594 3.8455767877 0.9721206750 0.2333630876 -0.0228705610
8.8639420426 12.0562511538 3.8037747219 0.9880993277 0.0810021429 0.1307607413
8.8778432473 11.8632817539 3.8292334115 0.9676537804 0.2443218623 0.0628727998
8.6955063793 12.6226146893 3.9603301872 0.9385979202 -0.0083363115 -0.3449122353
8.6454198329 12.7471817897 3.8384177262 0.9938036152 -0.0464774089 -0.1009664541
8.7010000000 12.9390167313 3.9758389734 0.9556703320 -0.0806003361 -0.2831921650
8.7010000000 13.0566875195 3.8690929424 0.9920608422 -0.1257025599 0.0037618813
8.8299135772 11.6694062970 3.9192087583 0.9223381964 0.3360934877 -0.1906132710
8.8545968942 11.6348006508 3.9168207094 0.9321691939 0.3082960188 -0.1897739674
8.7298683160 13.2644079555 3.8030737104 0.9638298395 -0.2664623312 0.0054650266
8.7217567644 13.2648227519 3.8364293913 0.9641076924 -0.2600440995 -0.0536043260
8.8107439586 13.4823038105 3.8693017054 0.9675720464 -0.2245641572 -0.1156515215
8.8273876119 13.6835772764 3.9005398567 0.9626236156 -0.2264928713 -0.1485151639
9.0140909757 11.4843265528 3.8178351108 0.8202656437 0.5175786689 -0.2434678527
9.0208391208 11.4981052095 3.7992385560 0.8623765498 0.4432801639 -0.2445595689
9.0355292191 11.3209426038 3.9524992895 0.7897740379 0.6062435294 0.0934117341
8.8580167059 13.9663634189 3.7841136899 0.9635880508 -0.1594843127 -0.2146225111
9.1509955961 11.3792423316 3.8028513660 0.5374178474 0.8311744837 -0.1425869381
8.9175468299 14.1264271167 3.8368607544 0.9348046103 -0.2203815984 -0.2785180276
8.9624803535 14.3246669052 3.8215641184 0.8928178746 -0.2023359777 -0.4024132141
9.3300406740 11.2509463689 3.8009393583 0.2289596327 0.9497173114 0.2135755490
9.1061014838 14.7930427581 3.8682740762 0.8068646945 -0.2671034719 -0.5269014141
9.3957102763 11.1301967893 3.8816392824 -0.1134891961 -0.8442358544 -0.5238186942
9.0933130220 14.9492082239 3.7849861514 0.8049253733 -0.2928858679 -0.5160552411
9.1807959583 15.1333924119 3.7961809933 0.7283670931 -0.3237173786 -0.6038943918
9.3144394674 15.0751013499 3.8882120686 -0.5885208015 0.3658070942 0.7209912871
9.3311647759 15.0975523274 3.8987167273 -0.5370330860 0.3925669066 0.7466503120
9.5275129442 11.2397996544 3.7820003142 0.0500039030 -0.8937688806 -0.4457317553
9.5945566219 11.1155035353 3.9083691652 -0.0580471866 0.8305442673 0.5539194384
9.4703076874 15.1719216704 3.9083273506 -0.3905623209 0.4435378054 0.8066816526
9.2549365850 15.2840405042 3.7925150301 0.6706318174 -0.3530814813 -0.6523698591
9.2589500631 15.3031707232 3.7904962551 0.6706318174 -0.3530814813 -0.6523698591
9.5210811349 15.1426198844 3.9150077064 -0.4376730225 0.5020421507 0.7459195696
9.4772462590 15.3364313115 3.8539670385 -0.4524270861 0.4045188465 0.7947793622
9.6693596660 15.2604454210 3.9351584305 -0.3017273100 0.5191276877 0.7996668521
9.7909225523 11.1771930688 3.9162231560 -0.2767773708 0.5988825344 0.7514878555
9.4748896091 15.6103429463 3.7860859494 -0.4974664021 0.4609226409 0.7348996516
9.5639457601 15.4690439124 3.8431988052 -0.4118197900 0.4002144313 0.8186775125
9.8376992884 11.4519326965 3.7815090502 0.5953380170 -0.6324409772 -0.4955714437
9.4530127790 15.5961111467 3.7838412801 -0.5185269593 0.4513839475 0.7262109366
10.4105715464 15.1580505831 3.8639331637 -0.5737514671 -0.5573643318 -0.6001285326
10.2808703720 15.1334257040 3.9144660888 -0.3926708563 -0.4402559314 -0.8074554560
10.6132485995 15.0855199456 3.7857960911 0.9738070042 0.2099388695 0.0873246221
10.5811946201 15.0970658929 3.8003660818 0.9357328332 0.2186974398 0.2767227761
10.0135322445 11.4567179491 3.8610418452 -0.5734054076 0.5116298511 0.6398758739
10.0339865334 11.7439756771 3.8057567847 0.7401793317 -0.5222834168 -0.4235027620
10.2594241028 11.6234148115 3.9385750486 -0.6244200925 0.3102973192 0.7168089855
10.0827109948 11.6913694326 3.8278947143 0.7272090170 -0.4528752629 -0.5158207458
10.1504618047 11.8835720858 3.8239660597 0.8181833326 -0.3834408354 -0.4284263763
10.3143945126 11.8128142488 3.9315075080 0.6970235493 -0.3371672286 -0.6328320722
10.1484917954 11.8915154256 3.8071115652 0.8219238205 -0.3721890707 -0.4311803902
10.4284312988 11.9560323164 3.9604991676 0.6945315352 -0.2769071417 -0.6640394428
10.2706208624 12.0265874352 3.8526960425 0.8449709625 -0.3752660072 -0.3810505168
10.2081363611 12.2079219137 3.7926411296 0.9396654573 -0.1870268567 -0.2864433333
10.3661675873 12.1801664690 3.8864096470 0.8337488285 -0.2322671051 -0.5009140474
10.3728066557 12.3549433634 3.8698681743 0.8734400166 -0.1193581903 -0.4720764343
10.4137652234 12.7965726234 3.8742355764 0.8546195821 0.0050272903 -0.5192302921
10.3933538931 12.7400497992 3.8631021235 0.6602402440 -0.0902965630 -0.7456066999
10.4436639446 13.0018738088 3.8905439698 -0.5712238616 0.0764571385 0.8172255539
10.2585153807 12.8975586210 3.7895538440 0.9350806778 0.0420080655 -0.3519367108
10.2733108534 13.1052724020 3.7976241018 0.9109571755 -0.1295333176 -0.3916352180
10.6260000000 14.9352353482 3.9274050585 0.9706080374 0.1412231424 -0.1948744772
10.6260000000 14.9510596030 3.8922575075 0.9928461458 0.1129338162 -0.0387618879
10.5137162024 13.1639327955 3.9039619102 -0.6157239750 0.0808776374 0.7838002261
10.4906346150 13.1895094414 3.8934702796 -0.5904282909 0.0455557293 0.8058033934
10.2412133494 13.2916716902 3.7800969770 0.9591436610 -0.2065957378 -0.1932915896
10.3156703685 13.3002497683 3.8139410766 0.9713858754 -0.1501821023 -0.1839967859
10.3756623291 13.6330086486 3.8172694453 0.8768392014 -0.2193488517 -0.4278306864
10.5275175339 13.5311019993 3.9017349397 -0.6105693853 0.0753779082 0.7883674249
10.3438782562 13.6699836865 3.7866638331 0.9697509133 -0.1923857608 -0.1502360982
10.5544639304 13.7847945831 3.8946540379 -0.6411392850 0.0697776127 0.7642457079
10.4084794340 13.8847796064 3.7891905232 0.9003056089 -0.3823850428 -0.2079218357
10.6255182416 14.7541019979 3.8063040775 0.9860180414 0.1455741083 -0.0810962451
10.6307559761 14.7581154500 3.7929708439 0.9860180414 0.1455741083 -0.0810962451
10.4720865587 14.0735397356 3.7832218074 0.9628797377 -0.2253832530 -0.1485429234
10.4677852762 14.0720452228 3.7828705444 0.9628797377 -0.2253832530 -0.1485429234
10.6412444838 13.9803475322 3.9024931187 0.7883757673 -0.0956225364 -0.6077170230
10.6268123157 13.9511366110 3.9038727884 0.8208824377 -0.1996525905 -0.5350615540
10.5982754550 14.1386402241 3.8660969012 0.8575661935 -0.2630945131 -0.4419971730
10.5489027746 14.4420409826 3.7915106477 0.9720396834 -0.1903249640 -0.1375327666
8.6723772045 12.2361377713 4.0583875661 0.9778680916 0.1549715364 -0.1405625070
8.9837938700 12.2150281054 4.1959711690 0.9894023678 0.1400844061 0.0382009654
8.8266190470 12.3233920372 4.1425194802 0.9852848211 0.0392288144 -0.1663578113
8.6435195429 12.3871227237 4.0426470234 0.9754027808 -0.0839123739 -0.2038335811
8.7461859725 12.4741384442 4.0986468941 0.9736506187 0.0397282088 -0.2245576586
9.0056135631 11.9697414260 4.1981528526 0.9900296594 0.0363886033 0.1360777095
8.8344466829 11.9859043788 4.1047890998 0.9867787464 0.0479875448 -0.1548060114
8.8333403182 11.7702307936 4.0802320351 0.9884454871 0.0908318134 0.1213470260
8.8113300324 12.5257628083 4.0903000295 0.9681817871 -0.1515943374 -0.1991059616
8.8731893485 12.6767425291 4.1465357714 0.9710262639 -0.0308898480 -0.2369679557
8.8717575642 12.6847408712 4.1452341493 0.9710262639 -0.0308898479 -0.2369679557
8.7442453153 12.7677942207 4.0293139230 0.9330784777 -0.0734730123 -0.3520884420
8.8752398708 12.8469218481 4.1483998825 0.9061553732 -0.1242258712 -0.4042899609
8.7953581894 13.0103608983 4.0757801722 0.8920350289 -0.1052856258 -0.4395320741
8.9567335491 11.6040164537 4.1524850447 0.9563345450 0.2310789630 0.1789601934
8.8484850570 13.3732197126 4.0861159868 0.8682258239 -0.2036377110 -0.4524550821
8.8079369444 13.3766365963 4.0308231060 0.9248828487 -0.2402650235 -0.2947277299
8.9825585898 13.4527692471 4.1791008632 0.8762875698 -0.2311557089 -0.4227140089
9.0086272416 13.6109584982 4.1994916930 0.8789553108 -0.3235220071 -0.3503870326
8.9994920401 11.4143821239 4.1740692003 0.8548279286 0.2424993148 0.4587627870
9.0260192355 13.6903325277 4.1395727834 0.8249770732 -0.3324584279 -0.4570385350
9.0458508430 13.8776156970 4.0807404471 0.7994248574 -0.2945917901 -0.5235795781
9.0646235135 13.8749007687 4.0970206771 0.7969796304 -0.3159365519 -0.5147888538
9.2150068465 13.9866947303 4.1896904376 0.8400836009 -0.3481247098 -0.4160153002
9.2088434723 13.9557496617 4.1981533104 0.8400836009 -0.3481247098 -0.4160153002
9.1378391829 14.0852740362 4.1071265299 0.7882266063 -0.2788137546 -0.5485997698
9.0202917790 11.2306619017 4.1692042391 0.7246455575 0.2336865168 0.6482896173
9.1599322377 14.1168456539 4.0804631007 0.7615321611 -0.2553543602 -0.5957037169
9.2180251128 14.2805707904 4.0650342447 0.7025146207 -0.2463042965 -0.6676881018
9.3068678869 14.4041218555 4.1534608719 0.7722795372 -0.3361852387 -0.5390397032
9.3767824861 14.5871106767 4.1688428616 0.7743003144 -0.2752054890 -0.5698429275
9.3956099662 14.5802500552 4.1766908282 0.7969295225 -0.2681925578 -0.5412726560
9.4971747264 14.7995046167 4.1726214792 0.6138565150 -0.5373066362 -0.5783439786
9.5994697560 14.9807336098 4.1885494788 0.5191183571 -0.6322386598 -0.5751438154
9.6158544325 14.9783094073 4.1750575431 0.5497821167 -0.6151758005 -0.5650649154
9.1404559138 10.9705968587 4.1551854839 0.4685354139 0.1994003910 0.8606474597
9.1448293276 10.9670037996 4.1536945474 0.4685354139 0.1994003910 0.8606474597
10.1732259328 10.7886927549 4.1571903030 -0.6066345222 0.3053171447 0.7340136222
10.2092990054 10.8585473886 4.1574818352 -0.5771320114 0.3595648759 0.7332337564
9.7745171177 15.0875171177 4.1893281371 0.4194264124 -0.7344414631 -0.5335515175
10.3760178488 10.9333150799 4.1936455598 0.7246941515 -0.3764758457 -0.5771345808
10.3933272553 10.9875782321 4.1992396615 0.7517046616 -0.3650476975 -0.5492542947
10.2581359996 11.0676908861 4.1175328958 -0.5668760839 0.3223219773 0.7581293085
9.9339321686 15.2174717298 4.1598266744 0.2920099018 -0.7518989337 -0.5910822369
10.4207035010 11.2054541821 4.1720200914 0.7522216830 -0.3144526365 -0.5790354730
10.4503283922 11.2216286953 4.1778829966 0.7523965837 -0.3151853804 -0.5784095061
10.1704268669 11.3923594026 3.9941674906 -0.4727759178 0.3095198115 0.8250335859
10.3611247331 11.3827744631 4.0901439404 -0.6145854344 0.2526588532 0.7472939500
10.3710099924 11.3913693749 4.1041774391 -0.6425313429 0.2601765783 0.7207368601
10.1330289442 15.3251511265 4.1810333221 0.0944031951 -0.7218478982 -0.6855827073
10.5435468606 11.5097315207 4.1575098411 0.7800809967 -0.2549061307 -0.5713987252
10.4096819987 11.6188643989 4.0552839541 -0.6178950797 0.2297946153 0.7519309179
10.5896420602 11.7800381451 4.1669473274 0.8197597030 -0.2374530093 -0.5211622565
10.5345936063 11.7872670890 4.1169032785 0.7214853389 -0.2434936265 -0.6482050290
10.4482398756 15.2617934955 4.1239182500 -0.2375461893 -0.7410017437 -0.6280829752
10.6060329045 11.9919921941 4.1118480950 0.7918734955 -0.1912257442 -0.5799733458
10.6314480111 15.2834001781 4.1813717396 -0.3220249522 -0.7535541063 -0.5731109309
10.7008363508 12.0952273496 4.1970495693 0.9055083828 -0.1276919622 -0.4046595254
10.6808504747 12.2984374469 4.1697961019 0.8987520759 -0.0710703933 -0.4326588787
10.6687181255 12.3776215972 4.1532519893 0.8716503392 -0.0650633763 -0.4857905343
10.6928536516 12.5563672480 4.1300045831 0.8622456472 -0.1093409081 -0.4945472775
10.7573333818 12.7424593447 4.1690909752 0.9473502556 -0.1296255655 -0.2927878174
10.7674250125 12.7230318843 4.1828522898 0.9473502556 -0.1296255655 -0.2927878174
10.8039854383 12.9268799036 4.1559504423 0.9493450511 -0.1709601520 -0.2636600089
10.7970420317 15.0935389880 4.1601688770 0.8049024815 0.5381730768 0.2500034694
10.7972029940 15.0870977182 4.1558868492 0.8049024815 0.5381730768 0.2500034694
10.8801963322 13.1919188659 4.1747608175 0.9568210645 -0.1613981821 -0.2417520989
10.7546039900 13.3174806790 4.0369127182 0.7901711784 -0.1256961077 -0.5998583144
10.8779284600 13.6870199043 4.1092694046 0.8618272750 -0.1256427960 -0.4913935651
11.0051212266 13.7520496264 4.1959917454 0.9818295923 -0.1306740530 -0.1376043006
10.8493631510 14.5514065177 4.0897930575 0.9822889603 0.1317664935 -0.1332140749
10.9917044936 14.5680094592 4.1868439729 0.9980470273 0.0592128718 0.0198989213
10.7623408460 14.7799153407 4.0304596678 0.8423494521 0.3845840480 -0.3775480243
10.9388117202 14.8203020258 4.1507807183 0.9335113091 0.2946359563 -0.2043190862
10.8870086674 13.8841338955 4.0872806068 0.8050293618 -0.0524749236 -0.5909095608
11.0013082111 14.0482982957 4.1911892828 0.9946160855 -0.0097870097 -0.1031651922
11.0024445977 14.3278241088 4.1922223615 0.9997871415 -0.0127944795 0.0161855779
11.0073497520 14.3114129541 4.1966815927 0.9992920760 -0.0346776858 0.0145878362
8.7489776159 12.7766477755 4.0336160144 0.9173144019 -0.1025705048 -0.3847253300
8.8906102265 12.8590659293 4.1623729332 0.9554444176 -0.0699901267 -0.2867531117
8.8695330546 13.0351496234 4.1331438572 0.9333700743 -0.1063798652 -0.3427880228
8.8039290068 13.1830383167 4.0253577365 0.9180552257 -0.1584174701 -0.3634260690
8.7793414991 13.2008764010 4.0108211805 0.9180552257 -0.1584174701 -0.3634260690
8.8059339614 13.1923966292 4.0280917656 0.9180552257 -0.1584174701 -0.3634260690
9.2451695026 10.8245888237 4.0518560692 -0.3640778702 -0.1840836648 -0.9129953498
9.1070603188 10.7071128545 4.1335370009 0.4617617294 0.1634658094 0.8718113526
9.0615731695 10.7285194679 4.1339659724 0.5048168650 0.1034822147 0.8570013793
9.0777131849 11.0922690075 4.0281195372 0.7217075812 0.3922750922 0.5703143163
8.8891486148 11.4501521250 4.0054100997 0.9216706313 0.3554924727 0.1553973914
8.8845434724 11.4470101338 3.9948458267 0.9069891224 0.4067870985 0.1090641477
8.8901826075 11.4686255346 4.0180074019 0.9219409298 0.3677819209 0.1214964222
8.9480022318 11.6089099445 4.1445474835 0.9563345450 0.2310789630 0.1789601934
8.7007380955 11.8084454056 3.9948472168 0.9665485369 0.2554036627 -0.0235137154
8.8370497553 11.9242342352 4.0902515456 0.9928366240 0.0741952144 -0.0936509913
8.8428146360 12.1478425443 4.0866917973 0.9793070507 0.1493893741 -0.1365302728
8.7105811428 12.1840965894 3.9965325973 0.9723398831 0.2024366827 -0.1165098332
8.8619535017 12.3333609981 4.0997410239 0.9669996682 0.0225115872 -0.2537811463
8.8942264929 13.5259363614 4.0434906722 0.8713548226 -0.2574696414 -0.4176723080
8.9096995197 13.5635467902 4.0645902541 0.8558069588 -0.2571076177 -0.4488765111
9.1564819799 10.4630242037 4.1305582829 -0.4889389013 -0.3539454750 -0.7972837334
9.2240046568 10.8398325701 4.0445811698 -0.3625946566 -0.2606222489 -0.8947631857
9.2737332988 10.6666792767 4.0782939381 0.2706752367 0.1383299454 0.9526802939
9.1317097273 10.4222813946 4.1536053959 0.4755534709 0.3615277278 0.8019642126
9.2666590108 11.0136418740 4.0051310630 0.4136416389 0.5417268775 0.7317325910
9.3050389450 11.0023339306 4.0031768422 -0.2764531306 -0.5588437371 -0.7818358805
9.1492043234 10.4513253208 4.1605244075 0.4917342825 0.4085079788 0.7689724486
8.9364292198 13.7597497425 3.9960398452 0.8570254646 -0.2888041161 -0.4267312216
9.2160053776 10.2375049839 4.1522716817 0.4353235841 0.5539179220 0.7096959298
9.3282109642 10.4865603220 4.1000223101 0.2234107128 0.3277917578 0.9179543654
9.3594657087 10.6395023210 4.0744312907 0.1604604700 0.1506956456 0.9754707889
9.0189228677 14.1004241709 3.9947370747 0.7973703309 -0.2438087827 -0.5520487595
9.3441283293 10.1355732110 4.1605376862 -0.2166249349 -0.5197102577 -0.8264229460
9.4018885458 10.3923892660 4.1105085846 0.1234736234 0.4364714592 0.8912053241
9.4165448466 10.3524066594 4.1097442437 -0.0683836103 -0.4037242306 -0.9123214496
9.5053262650 10.9500874078 4.0010750168 0.1222923686 0.4480818240 0.8855886492
9.2062064726 14.4759708508 3.9942918611 0.6879074994 -0.2498065237 -0.6814543074
9.2157395399 14.4832733527 4.0346389669 0.6905512751 -0.2456946032 -0.6802742817
9.3004267194 14.6354868877 4.0074393414 -0.6525096439 0.3085757437 0.6921070546
9.2648170637 14.6564432242 4.0005413196 -0.6485046707 0.3110324779 0.6947665002
9.3972396304 14.8145394283 4.0351820020 -0.5703215551 0.3705213611 0.7331079353
9.4051728869 14.8390740530 4.0351347735 -0.5699801221 0.3766187087 0.7302609182
9.4863428607 10.9524205123 4.0006508159 0.1072224841 0.4762971033 0.8727224119
9.5025952210 10.7122834679 4.0443120967 0.0499769632 0.2271724211 0.9725713312
9.5497161764 10.0966597719 4.1562436778 -0.0361909606 -0.4429204488 -0.8958301683
9.4922938884 10.7356330838 4.0400667120 0.1020940671 0.2193560095 0.9702884842
9.4929842549 10.9517559011 4.0007716544 0.1072224841 0.4762971033 0.8727224119
9.5993608258 10.4706653352 4.0952599996 -0.1076320042 0.3930369373 0.9132016851
9.6383924552 10.5902402341 4.0719661882 -0.0360545586 0.1873570738 0.9816299688
9.6071699261 10.2563336093 4.1370129333 -0.0567863520 0.4108238661 0.9099445375
9.6243159861 10.4294285526 4.1032931391 -0.1114934085 0.4145386985 0.9031760002
9.6850280541 15.0801627270 4.0222834718 -0.3889417373 0.5468160909 0.7414286802
9.7065324934 10.1757273893 4.1527154436 0.2409325398 -0.3810142651 -0.8926251403
9.6736219346 15.0815818838 4.0184130441 -0.3889417373 0.5468160909 0.7414286802
9.6920791858 10.8286609879 4.0282529396 -0.0734478861 0.2409507016 0.9677541875
9.7813277643 10.6977050249 4.0557262186 -0.1828062493 0.2566154600 0.9490681645
9.8057640300 10.5236054979 4.1007714778 -0.2648209681 0.3658486070 0.8922021361
9.8751192736 10.4888395660 4.1086728259 -0.3193024921 0.3700256610 0.8724258873
9.7878130034 10.7035148486 4.0598829890 -0.1828062493 0.2566154600 0.9490681645
9.9687680608 10.3116865247 4.1633835063 -0.4063677547 0.3989574160 0.8220086546
9.7094854582 11.0113240465 3.9904800972 -0.1478205940 0.4089166790 0.9005199729
9.7166752787 11.0096561321 3.9903665094 -0.1478205940 0.4089166790 0.9005199729
9.9943644764 10.6037601330 4.1079805775 -0.4580263940 0.3242583983 0.8276885366
9.9563854719 10.8121940155 4.0562963708 -0.3847553835 0.2998434243 0.8729588855
9.9150368843 11.0362522280 4.0006971585 -0.2401226266 0.3510696623 0.9050365829
10.0140931135 10.5597628813 4.1319719719 -0.5417213364 0.3947505578 0.7420983700
10.0944998250 15.1930432948 4.0227863111 0.0314156651 -0.7368370801 -0.6753400428
9.9049602592 10.8407147417 4.0573285267 -0.1689092450 0.2284102314 0.9588005179
9.9474098939 10.7932235575 4.0777696219 -0.3972660045 0.3019345764 0.8666113508
9.9249103975 11.0730949036 3.9932909985 -0.2890212322 0.3330139466 0.8975346449
10.0721119441 10.9368970097 4.0691495276 -0.3555204721 0.2574394773 0.8985155032
9.9173179251 11.0503307919 4.0060245934 -0.2659144095 0.3343977939 0.9041391720
10.2778811907 15.3050661532 4.1194412356 0.1212862083 0.6929996051 0.7106625099
10.1074722426 11.1425955599 4.0263262675 -0.3661093639 0.2600479718 0.8934981735
10.2727307588 11.1084622864 4.0988415247 -0.5564606084 0.3127944895 0.7697474902
10.0803963593 11.1518535085 4.0225491627 -0.3360073064 0.2734130882 0.9013014885
10.3030209631 15.1633974023 4.0073235572 -0.3289202135 -0.7915121770 -0.5150921926
10.1998276032 11.3340918420 3.9980788680 -0.4685879463 0.2850427174 0.8361674389
10.1934131231 11.3451327801 3.9999071109 -0.4685879463 0.2850427174 0.8361674389
10.3872028349 11.4372051257 4.0756365491 -0.6562763347 0.2638644346 0.7068783012
10.5514675383 11.5571148752 4.1467568868 0.7819123893 -0.1972437945 -0.5913610580
10.4104030830 11.6414416037 4.0480788280 -0.6146114986 0.2383971029 0.7519438325
10.4984778708 11.8023459341 4.0743680943 0.7128029248 -0.2371531011 -0.6600533289
10.5838664922 11.9705754263 4.0916968111 0.7776053319 -0.1867234963 -0.6003867784
10.5791384776 12.1809337777 4.0310979240 0.7974839836 -0.1267674424 -0.5898722840
10.5588960789 12.1379140448 4.0034946531 0.7049327290 -0.2271882670 -0.6719042632
10.5496406646 12.1611312034 3.9908736335 0.6965504027 -0.2008116633 -0.6888339513
10.6314835361 12.4671977114 4.0067533974 0.8808628937 -0.1279441186 -0.4557530747
10.4950912153 15.0893324862 3.9953806630 -0.6292186071 -0.7744626434 -0.0655099874
10.6611377438 15.2504262507 4.1433303773 0.7394868243 0.6600768812 -0.1321277700
10.6915832151 15.3100079643 4.1889050816 -0.4643686612 -0.7822254905 -0.4153131693
10.7594027942 12.5431027126 4.1719129012 0.9415391401 -0.0950323366 -0.3232226828
10.4990435322 15.0721489918 3.9932693291 -0.5396044647 -0.8176574644 -0.2006571519
10.6934864437 12.8805613250 4.0513513125 0.8073595940 -0.1259409091 -0.5764628118
10.7542902650 13.0866147539 4.0599412705 0.8009677052 -0.1340918471 -0.5834981677
10.8551729876 13.0145735928 4.1976238102 0.9629781347 -0.1717826189 -0.2077591007
10.7397774396 13.1293106722 4.0401510540 0.8025152468 -0.1580412468 -0.5753192531
10.6831749005 15.0266788564 4.0419771823 0.9098265350 0.3635844208 -0.2000551053
10.6776821073 15.0467437462 4.0369837339 0.8890676948 0.4577721749 -0.0018083092
10.8571838648 13.2202821139 4.1301671498 0.8794991803 -0.1981276393 -0.4326969268
10.7503942656 13.3495190876 4.0330856960 0.7936588246 -0.1058771017 -0.5990790512
10.8337660215 13.4602627955 4.1088782014 0.8618362823 -0.0767714834 -0.5013425594
10.7246751214 13.5707503488 4.0047784918 0.7282495437 -0.0815301171 -0.6804450324
10.9053218190 13.6518972162 4.1279466948 0.8946162443 -0.0997307518 -0.4355634886
10.7805265075 13.8041620414 4.0093946501 0.8004862914 -0.1175193841 -0.5877166764
10.7544949670 13.8290681172 4.0094051648 0.7952793697 -0.1189028853 -0.5944685256
10.8070172593 14.0288599205 4.0145611448 0.7912359902 -0.0130766461 -0.6113710895
10.8541385836 14.0822126313 4.0573987123 0.8466441638 0.0843560683 -0.5254309790
10.8518771091 14.2994481072 4.0553428265 0.8868363722 0.0637548902 -0.4576642470
10.8381595825 14.2970517324 4.0428723477 0.8868363722 0.0637548902 -0.4576642470
10.8271282929 14.5247734493 4.0328439027 0.8405840648 -0.0274965103 -0.5409827834
10.9656562514 14.7775518707 4.1690838078 0.9492094131 0.2721559741 -0.1579006516
10.7468262710 14.8405433628 4.0293261559 0.8655767117 0.3496235986 -0.3585251672
8.8095852571 12.3183427308 4.3669291948 0.9429504615 0.0622786013 0.3270562689
8.7954731056 12.5705246718 4.3861730378 0.9283542522 -0.1910438971 0.3188426130
8.9320000000 12.9031756037 4.3281239059 0.9434755669 -0.2973189697 0.1464762266
8.9809006110 13.0528074237 4.3333653028 0.9819130559 -0.1893229187 0.0018929084
9.0007245908 10.2901781766 4.2492234990 0.7135987075 0.5880580820 0.3807421395
8.8521302838 10.3271392496 4.4057253181 0.8003181588 0.5903145144 0.1049743718
8.8672360877 10.3149603305 4.4037297149 0.8003181588 0.5903145144 0.1049743718
8.9335315493 10.4428427913 4.2997090386 0.7929709355 0.3434581622 0.5032231973
8.6561616906 10.8047212289 4.4019624908 0.9505004287 0.2944159095 0.0993388513
8.7865107835 10.8704689698 4.3260767264 0.6808373132 0.0049697621 0.7324178141
8.6564505487 10.9665312965 4.3922997007 0.9539631663 0.2630308716 0.1441146697
8.6298460114 10.9699936258 4.4068112665 0.9654404983 0.2596904075 0.0220348943
8.6412038597 11.1311949882 4.4006160765 0.9224053477 0.0891979688 0.3757819805
8.6302991416 11.1251568973 4.4065641046 0.9354655811 0.0446516556 0.3505857616
8.6441669149 11.3070449707 4.3989998646 0.8312876126 0.0566549494 0.5529476665
8.8500316699 11.3347679561 4.2867099983 0.8065622545 0.1019544474 0.5822908383
8.7679160124 11.5093415439 4.3315003568 0.8108077590 0.0390523416 0.5840082983
8.9154436667 11.7360816373 4.2568637522 0.9339866921 0.0213697676 0.3566681821
8.6350511078 11.8012487536 4.4094945104 0.9322854074 -0.0520108798 0.3579647852
8.7934691494 11.8944461627 4.3469528527 0.8686380671 -0.0823167369 0.4885610128
8.8368897374 12.0917974384 4.3183015785 0.8647322605 0.1030863487 0.4915397464
9.0770069137 13.4540002817 4.3213726800 0.9512597889 -0.3006644022 -0.0685983329
9.1066079979 13.4546811297 4.3469555905 0.9584232583 -0.2841692140 -0.0259367637
9.0693179258 10.1775580408 4.3730235250 0.7199323731 0.6913724925 -0.0608395819
8.9619697819 12.4051517041 4.2845660578 0.9879524839 0.0815033832 0.1315564061
9.1412961568 13.6902600340 4.2968674402 0.8576015670 -0.5142597021 0.0075173829
9.1541101223 13.7033207800 4.2947041804 0.8857960457 -0.4551907084 -0.0903702632
9.1623399953 10.0428242734 4.2447603728 0.4579259866 0.7626626862 0.4567815865
9.2443584638 13.8433348666 4.3223059506 0.9359844253 -0.3515579776 -0.0184429945
9.3382963810 14.0180238763 4.3837969676 0.9282395491 -0.3520102638 0.1202502129
9.3321983315 14.2339389612 4.2282666148 0.8477087692 -0.3756852756 -0.3745002220
9.4502509775 14.2488767892 4.3876128984 0.8711002845 -0.4857050641 -0.0726284041
9.3742128651 9.9809650778 4.2852034622 0.1053873223 0.8452315444 -0.5239056676
9.3870427348 9.9984022922 4.2594566293 0.0672505002 0.8443320610 -0.5315832399
9.4364367532 14.4396794972 4.3072579592 0.8424843976 -0.4459192429 -0.3022847476
9.5862829695 14.4374570979 4.4098417015 0.8206338381 -0.5678214891 -0.0643339737
9.5509115376 14.5656343155 4.3019039817 0.8136697260 -0.4304103423 -0.3907537770
9.5558953787 14.6009851162 4.3074567433 0.8494589939 -0.4037437596 -0.3397210535
9.5182421674 10.1546218254 4.4036057900 -0.1233826445 -0.7664052715 0.6303964489
9.4971414099 10.1418253605 4.3948809276 -0.0682860950 -0.7626210720 0.6432309926
9.6961245500 9.9420456609 4.2082233281 -0.1285717893 0.5080429387 -0.8516816702
9.9302355735 15.1859658585 4.2272882461 0.4329966955 -0.8322059246 -0.3463338863
10.0957964190 10.4753337089 4.3350338999 0.7732513252 -0.6308161681 -0.0644464900
10.0929397518 10.4961153866 4.3297849565 0.8079545386 -0.5615820357 -0.1784238795
10.2164636258 10.5539111567 4.2401557240 0.7630938159 -0.5051513255 -0.4031252490
10.1898387340 10.7019632307 4.4071724474 0.7821252303 -0.6034622240 -0.1552851195
10.2326069093 15.1849741639 4.2747349028 -0.1741542229 -0.9163527960 -0.3605105544
10.2971137264 10.7946690126 4.2969689622 0.7805514786 -0.4842443008 -0.3952807185
10.3247126062 10.9794144285 4.3916928923 0.7984613556 -0.4727793633 -0.3727454055
10.2982980558 15.0162877906 4.3390526234 -0.2246791103 0.5664791863 0.7928559951
10.3010948981 15.0243041996 4.3360813895 -0.0291935902 0.6229855194 0.7816884142
10.2833991350 14.8208348366 4.4017196024 -0.0072762723 0.0595681072 -0.9981977241
10.3696251643 15.3553233537 4.2173896118 -0.0177549450 -0.7243989574 -0.6891523144
10.4604310579 11.1989999591 4.3671394107 0.8473602853 -0.3384935359 -0.4091487175
10.4354222615 11.1916097549 4.3723295273 0.8515370481 -0.3235124650 -0.4125825260
10.4562444107 15.0872628946 4.2918456255 -0.3522623616 -0.7841881873 -0.5108425545
10.6790889737 11.9314176079 4.3206536197 0.9119028193 -0.1566716814 -0.3793247058
10.7030000000 12.2403531569 4.4058606742 0.9460667292 -0.0481044050 -0.3203805708
10.7030000000 12.4263014639 4.3483325828 0.9435936320 -0.0868131336 -0.3195223585
10.7030000000 12.4700910251 4.3598502568 0.9556611758 -0.0649731902 -0.2872110749
10.5046982504 14.9361024555 4.3312454821 -0.5243628956 -0.5331985388 -0.6638846827
10.4769501041 14.7371680373 4.4006287782 -0.1119599297 -0.1725558186 -0.9786160961
10.7053047707 12.4354190674 4.4037142617 0.9527120612 -0.0645845491 -0.2969319189
10.7163727201 12.6651028756 4.3735289451 0.9695159448 -0.0701854337 -0.2347612357
10.7116367409 12.6692219019 4.3864452520 0.9691367903 -0.0695020576 -0.2365234568
10.6616425409 15.0653836797 4.2741257305 0.3985888192 0.8485906626 0.3478804976
10.4811242777 14.9140858956 4.3458642320 -0.3175796861 -0.2540419055 -0.9135676511
10.7358037821 12.8812203543 4.3652675699 0.9843256202 -0.0865071426 -0.1536866543
10.8082613392 13.0340929072 4.2664618101 0.9708923580 -0.1474841848 -0.1887231954
10.4715580821 14.7366508747 4.4020339208 -0.1119599297 -0.1725558186 -0.9786160961
10.7772967721 13.2561871168 4.3479970784 0.9896827834 -0.1194529083 -0.0791137843
10.7943882530 13.2787470561 4.3427138864 0.9896827834 -0.1194529083 -0.0791137843
10.8331815227 13.4287642600 4.3374797417 0.9706524826 -0.2241986643 -0.0869983728
10.8684247503 14.9525299796 4.2349214373 0.8453644839 0.5042791166 0.1762426221
10.6837352083 14.8477846414 4.3138582228 0.7560842918 0.3050480862 0.5790355851
10.9532801868 13.5455095497 4.2524725574 0.9802987195 -0.1211274625 -0.1560210193
10.7807726429 13.5897101576 4.4092975974 0.9849957239 -0.1053414482 -0.1366989506
10.9202311509 13.6108923653 4.2825171355 0.9809965599 -0.1235346871 -0.1496159433
10.8363333726 13.7753865161 4.3587878431 0.9986680966 -0.0323618491 0.0401838709
10.8686714006 13.9610502159 4.3293896358 0.9924740644 0.0622711270 -0.1054397373
10.8731569923 14.2007362647 4.2942974121 0.9945595622 0.0887454849 -0.0545482914
10.8889574627 14.4309888325 4.2832108209 0.9771910999 0.1812231071 0.1107056446
10.8438833784 14.4890657757 4.3085911275 0.9726998840 0.1757292379 0.1515723283
10.8261375942 14.6844524072 4.2969579540 0.8725145608 0.3367538817 0.3539988198
10.6118796193 14.5981906613 4.3945016305 0.6325724138 0.6450269369 -0.4287101492
10.6137438445 14.5969915823 4.4003832040 0.6325724138 0.6450269369 -0.4287101492
8.9666424939 10.8310646124 4.2231040942 0.6615923103 0.0671295574 0.7468528888
8.6558281755 10.7774438963 4.3926391770 0.9430318939 0.3303221098 -0.0397259483
8.8268414063 10.8931771812 4.2993592330 0.7016668890 0.0611555576 0.7098757460
8.9921541356 10.8641139588 4.2091886533 0.6074534668 0.0810553670 0.7902090313
8.9779426333 11.0368389472 4.2169403819 0.6142973818 0.1350667552 0.7774289024
8.8383908827 11.0653088540 4.2930595186 0.6939758415 0.0874401509 0.7146689804
8.8214018177 11.0927946004 4.3023262812 0.7038317384 0.0352880393 0.7094897027
9.0029521854 11.2562318512 4.2032988080 0.6581341371 0.1909528103 0.7282832429
8.8261601766 11.3092281401 4.2997308128 0.8089386543 0.1209884576 0.5753086534
8.6497676586 11.3147169944 4.3959449135 0.8312876126 0.0566549494 0.5529476665
9.0050491664 11.4438691731 4.2021550001 0.8558553549 0.2027000593 0.4758406219
8.7793288448 11.5391840927 4.3252751756 0.8322162918 0.1383624945 0.5369095490
8.7458521395 11.7033153243 4.3435351966 0.8430041423 -0.0036891333 0.5378944194
8.9367156657 11.7566970418 4.2394278187 0.9710415750 0.0934662390 0.2198688743
8.7630135703 12.3479425130 4.3152180203 0.9484849858 -0.0416743301 0.3140692311
8.7376458892 10.4696378881 4.3850141665 0.8660500893 0.3029383813 0.3977255084
8.9093868325 10.4473847939 4.2679180687 0.7929709355 0.3434581622 0.5032231973
8.9956435011 10.5753765968 4.2091067038 0.6649002799 0.1786111597 0.7252624845
9.0082414380 10.5528447290 4.2005172014 0.6553428326 0.1271377783 0.7445547375
8.7321713748 10.6328570802 4.3887467899 0.9499673622 0.2979796800 0.0936489247
8.8999404535 10.6822067678 4.2743587817 0.7719093628 0.1692661242 0.6127845583
8.8800941695 10.6905328752 4.2878903390 0.7546250232 0.2335193052 0.6131963865
8.8241080877 11.8855763579 4.3260626675 0.8520639208 -0.1149261109 0.5106653150
9.0033071942 12.0028449948 4.2038814585 0.9858776007 0.0056541335 0.1673720027
8.8098521862 12.0661231376 4.3357826003 0.8591098692 0.0827729181 0.5050533405
8.9709308248 12.2033388583 4.2176361328 0.9906392283 0.1343182308 0.0243419850
8.9128183309 12.5238132534 4.2261568215 0.9982622516 -0.0111397961 -0.0578652058
8.8019308383 12.5580803246 4.3773670387 0.9316338986 -0.2517578425 0.2620615722
8.8942705969 12.7420783501 4.3028983721 0.9852247148 -0.1441530162 0.0924779393
9.0401946514 10.2710468861 4.2214888125 -0.6070786254 -0.5897339500 -0.5326062437
8.9771799985 13.0737284947 4.3232181776 0.9699868842 -0.2385423586 -0.0471485698
8.9410315717 13.2198851812 4.2123157796 0.9148727617 -0.2169753799 -0.3404842353
8.9688012871 13.2820633745 4.2501835733 0.9375001495 -0.2524061193 -0.2395508729
9.1528836493 10.1103108950 4.2083950737 -0.4395476552 -0.5756213438 -0.6895345730
9.1076247818 13.4923472882 4.3344883388 0.9188380987 -0.3943821594 -0.0141159778
9.3839353595 9.9753884660 4.2324351870 0.0672505002 0.8443320610 -0.5315832399
9.3728592146 14.0400558748 4.3670939453 0.9196704762 -0.3919327134 0.0243918703
9.3341789733 14.1692436523 4.2468517452 0.8358131230 -0.3819783863 -0.3943462132
9.3185371530 14.1859092630 4.2020961178 0.8372264622 -0.3178394221 -0.4450055650
9.6453926951 9.9989917233 4.2599924758 -0.1574169377 0.5161873466 -0.8418851055
9.4542332995 14.4213570800 4.2821363175 0.8339504336 -0.3771875040 -0.4028104532
9.6687473602 10.0794645676 4.3331496069 -0.2557530736 0.7520654969 -0.6074437041
9.8504059129 10.1308270876 4.2674248721 -0.5584359332 0.7283053150 -0.3971406258
9.8327140646 10.1102476940 4.2614352165 -0.5527311989 0.7594832618 -0.3430355620
9.8530439211 10.0381403753 4.2030302918 -0.6035438713 0.7961931802 0.0425583736
9.5565078295 14.7685665317 4.2147496033 0.6670013828 -0.4731703281 -0.5755162864
9.9966931127 10.2761288502 4.2630648294 -0.6732364126 0.7374345962 -0.0542489556
10.0155563656 10.1965187407 4.2097300043 0.7195328878 -0.6812250002 -0.1349256184
9.7918346953 14.7607660209 4.3548192029 -0.5562088345 0.7040270635 0.4415627094
9.7883713920 14.7673982881 4.3518059563 -0.5562088345 0.7040270635 0.4415627094
9.6459458630 14.9434025920 4.2084781478 0.5519679566 -0.6209594764 -0.5565435326
9.9415440157 10.3892123797 4.3996019765 0.6915489549 -0.6995741971 0.1798776967
10.1198668194 10.3865950293 4.2019509480 0.8079200909 -0.4679067242 -0.3582295691
9.8217463504 14.9388842506 4.2763099090 0.5074994668 -0.6664963688 -0.5461015305
9.8471565797 14.9435311517 4.2843995174 0.5032838455 -0.7284438365 -0.4648386257
9.7758543189 15.0787698190 4.2039290259 0.4154066456 -0.7418859866 -0.5263482703
9.9614105774 15.2107574002 4.2054287051 0.2817943148 -0.8216590625 -0.4954476250
10.2577590043 10.6109977241 4.2194179878 0.7663836513 -0.5021278285 -0.4006541436
10.0837553241 14.9879523656 4.3072455624 -0.2163086365 0.6652591146 0.7145914107
10.0344184873 14.9939764770 4.2960846424 -0.2177016509 0.6072489236 0.7641038778
10.3920641128 10.9194631793 4.2080069650 0.7246941515 -0.3764758457 -0.5771345808
10.1400215975 15.2117778773 4.2433332946 0.0966682331 -0.9624440381 -0.2536862751
10.6466331698 15.0734083228 4.2624432293 0.3985888192 0.8485906626 0.3478804976
10.5300794548 11.3574930980 4.2516014869 0.8016889475 -0.3073587853 -0.5126650061
10.5210093398 11.3988082887 4.2763381643 0.8248219388 -0.2924086967 -0.4839069366
10.8064645476 14.7147112620 4.2784873822 0.7584069022 0.5422982972 0.3615681505
10.8308765087 14.9377919630 4.2317152515 0.8602764357 0.4801760859 0.1713341199
10.6752604485 14.8808281485 4.3031441599 0.6983224720 0.3778304789 0.6079390219
10.5838419183 11.6127141699 4.3149765863 0.8584722829 -0.2435255433 -0.4513542392
10.9897877904 14.6051124277 4.2096419135 0.9893850304 0.1414625736 0.0332505921
10.6260000000 11.6106345842 4.2819689573 0.8584722829 -0.2435255433 -0.4513542392
10.6260000000 11.7744977182 4.3680766381 0.8973801034 -0.2049049254 -0.3907978015
10.6776003155 11.9154839228 4.3246819316 0.9119028193 -0.1566716814 -0.3793247058
10.7030000000 12.0716229431 4.2292020671 0.9040910642 -0.1171330835 -0.4109734642
10.7699245057 12.8586719470 4.3185156379 0.9655220291 -0.1026019105 -0.2392489482
10.7105080182 13.0863975823 4.3997617934 0.9828946391 -0.1438991529 -0.1149398200
10.8724890107 14.2247480754 4.2944393109 0.9988575391 0.0233916454 -0.0416707037
10.8555556811 14.2529011186 4.3059847629 0.9995775016 -0.0176776498 0.0230720385
10.9270768224 13.3353431717 4.2094406968 0.9873533432 -0.1501881598 -0.0507630993
10.9945860827 13.7727893426 4.2149217430 0.9818295923 -0.1306740530 -0.1376043006
10.8571114504 13.7725105164 4.3398986815 0.9980208361 -0.0565108392 -0.0275850634
10.8609855701 13.9585659098 4.3363767544 0.9988312746 0.0297069662 -0.0381258591
11.0002069371 14.0084043265 4.2098118754 0.9993749562 0.0047459379 -0.0350310297
11.0065508327 14.0877301928 4.2040446976 0.9977507173 0.0098995988 -0.0662985981
8.8048839377 11.0002208663 4.5784805482 0.9231880819 0.3154687046 -0.2195524125
8.7471505810 11.1720502659 4.5875466094 0.9485651115 0.3026303342 -0.0929468127
8.6954174826 11.2629863340 4.6047749526 0.9762281673 0.2153915087 -0.0241880818
8.6081755892 11.7040000000 4.5851911038 0.9894527794 -0.0090285735 0.1445741408
8.8311197952 10.6771625775 4.5106294959 0.8671069770 0.3804666353 -0.3215130320
8.9505516002 10.8921981670 4.6185761720 0.8624015636 0.4156439376 -0.2889699990
9.0894924678 10.7166212115 4.6115881620 0.6731231291 0.6548972428 -0.3435329015
8.9611599121 10.5437114036 4.5215103588 0.7451391343 0.4480407821 -0.4939910203
8.9285375111 10.5229105920 4.5069403917 0.7451391343 0.4480407821 -0.4939910203
8.6258673232 12.2482186695 4.6174536501 0.9947412927 -0.0984096245 0.0283779221
